# .PCD v0.7 - Point Cloud Data file format
VERSION 0.7
FIELDS x y z rgb
SIZE 4 4 4 4
TYPE F F F U
COUNT 1 1 1 1
WIDTH 456
HEIGHT 1
VIEWPOINT 0 0 0 1 0 0 0
POINTS 456
DATA ascii
-2.4481101 0.1728954 -1.8126837 4284794132
-2.4540937 0.062456269 -1.8121395 4284794132
-2.4228141 0.060166143 -1.799221 4284794132
-2.4483287 -0.047732823 -1.8086668 4284794132
-2.4467623 -0.15678293 -1.805804 4284794132
-2.3576741 0.15942863 -1.8048817 4284794132
-2.466176 -0.26617077 -1.80909 4284794132
-2.3299665 0.15562245 -1.7998381 4284794132
-2.3610823 0.05160271 -1.8043636 4284794132
-2.3754067 -0.05430761 -1.8051145 4284794132
-2.393661 -0.15921579 -1.7990253 4284794132
-2.4222496 -0.26598737 -1.7994142 4284794132
-2.3228498 0.047542822 -1.7983177 4284794132
-2.4420645 -0.37551281 -1.80452 4284794132
-2.3282583 -0.057802141 -1.798062 4284794132
-2.4443903 -0.4856658 -1.8047018 4284794132
-2.4890685 -0.60146075 -1.8149898 4284794132
-2.2576187 0.14505702 -1.7929962 4284794132
-2.3468876 -0.16268513 -1.800976 4284794132
-2.3466802 -0.26819494 -1.7961226 4284794132
-2.2527754 0.039399363 -1.7931509 4284794132
-2.4322865 -0.59654909 -1.807014 4284794132
-2.3613832 -0.37565207 -1.8021047 4284794132
-2.3259363 -0.27013004 -1.8022354 4284794132
-2.3809779 -0.48387524 -1.8028551 4284794132
-2.4489346 -0.71088564 -1.8100433 4284794132
-2.2429898 -0.064906202 -1.7909126 4284794132
-2.3823338 -0.59291363 -1.8026967 4284794132
-2.2538006 -0.16732767 -1.7919235 4284794132
-2.309339 -0.3745361 -1.7948577 4284794132
-2.4416938 -0.82465774 -1.8096949 4284794132
-2.1546376 0.13018794 -1.7833035 4284794132
-2.3187549 -0.48066354 -1.7947499 4284794132
-2.253386 -0.27061442 -1.7907343 4284794132
-2.3806162 -0.70413184 -1.8055279 4284794132
-2.4457202 -0.94193172 -1.8101709 4284794132
-2.332639 -0.58911163 -1.7976751 4284794132
-2.160177 0.028820157 -1.7859651 4284794132
-2.2541523 -0.37388554 -1.7898515 4284794132
-2.4492569 -1.0617974 -1.8100083 4284794132
-2.3735304 -0.81580931 -1.8053657 4284794132
-2.3245111 -0.69705987 -1.7962695 4284794132
-2.3325818 -0.69921911 -1.8017926 4284794132
-2.1482131 -0.072543912 -1.7822 4284794132
-2.2465892 -0.47784242 -1.7894367 4284794132
-2.1574681 -0.17205484 -1.782868 4284794132
-2.4453795 -1.1834805 -1.8107672 4284794132
-2.3213413 -0.80809736 -1.7988323 4284794132
-2.3535013 -0.92702281 -1.8042808 4284794132
-2.2512724 -0.58352685 -1.7920903 4284794132
-2.1515472 -0.27183098 -1.7779623 4284794132
-2.4593558 -1.3151941 -1.8169329 4284794132
-2.0507126 0.1153819 -1.7741941 4284794132
-2.3324423 -0.9223299 -1.7988775 4284794132
-2.3528054 -1.0434078 -1.8047817 4284794132
-2.1601603 -0.37312713 -1.783268 4284794132
-2.2464561 -0.68989331 -1.7930948 4284794132
-2.2747302 -0.80191302 -1.7953167 4284794132
-2.0529654 0.017165441 -1.7748802 4284794132
-2.402391 -1.2988644 -1.8095206 4284794132
-2.4477491 -1.4428157 -1.8173577 4284794132
-2.0514383 -0.080251463 -1.773831 4284794132
-2.3499179 -1.1625309 -1.8065239 4284794132
-2.1478589 -0.47335485 -1.7795191 4284794132
-2.22837 -0.79557735 -1.7911502 4284794132
-2.0580881 -0.17676769 -1.7733126 4284794132
-2.4503279 -1.5808384 -1.8212169 4284794132
-2.2415776 -0.90783185 -1.7933556 4284794132
-2.3455651 -1.2845185 -1.8068975 4284794132
-2.1443343 -0.57557261 -1.7822371 4284794132
-1.9724672 0.10409417 -1.7705898 4284794132
-2.2554233 -1.0236921 -1.7957653 4284794132
-2.2949259 -1.1505541 -1.8041264 4284794132
-2.0488529 -0.2741645 -1.7714518 4284794132
-2.147306 -0.67936397 -1.7836745 4284794132
-2.0581434 -0.37153634 -1.7726393 4284794132
-2.3471847 -1.4130113 -1.8103794 4284794132
-2.2865722 -1.2687938 -1.801904 4284794132
-2.1464851 -0.78413564 -1.7827486 4284794132
-1.9442592 0.026093639 -1.76781 4284794132
-2.2402132 -1.1361619 -1.7948813 4284794132
-2.0474737 -0.46893081 -1.7700611 4284794132
-2.3480122 -1.546636 -1.8135351 4284794132
-1.9526211 -0.087951347 -1.7651813 4284794132
-2.1818647 -1.0090352 -1.789363 4284794132
-2.1437721 -0.89173275 -1.7854974 4284794132
-2.2352517 -1.2542126 -1.7951214 4284794132
-2.2821612 -1.3944987 -1.8073502 4284794132
-1.9487746 -0.18172915 -1.7622557 4284794132
-2.0449491 -0.56840026 -1.7738255 4284794132
-2.1411638 -0.97260386 -1.7841244 4284794132
-2.0515029 -0.66881567 -1.7729896 4284794132
-1.9451188 -0.27548635 -1.7597659 4284794132
-2.2257307 -1.3752702 -1.7970909 4284794132
-2.2651365 -1.5177288 -1.8042248 4284794132
-2.1474276 -1.1142563 -1.7856277 4284794132
-1.9552108 -0.36998549 -1.7623799 4284794132
-1.8513694 0.087519594 -1.7593524 4284794132
-2.0456491 -0.77066398 -1.7741898 4284794132
-2.1495931 -1.2307154 -1.7856157 4284794132
-2.2225304 -1.502231 -1.797895 4284794132
-2.056459 -0.87677544 -1.7763215 4284794132
-1.947275 -0.46482417 -1.7619839 4284794132
-1.849257 -0.053500883 -1.7582194 4284794132
-2.2047076 -1.496551 -1.796958 4284794132
-1.9503781 -0.56144863 -1.7651874 4284794132
-2.0527923 -0.98363447 -1.7783691 4284794132
-2.1453788 -1.3518535 -1.7913971 4284794132
-2.1778376 -1.4905626 -1.8010919 4284794132
-1.845672 -0.18702149 -1.7564336 4284794132
-1.9526371 -0.65938246 -1.7669668 4284794132
-2.0511298 -1.0918033 -1.7762982 4284794132
-2.1470959 -1.4779246 -1.7931771 4284794132
-1.853196 -0.27822587 -1.7583339 4284794132
-2.0653794 -1.2093877 -1.780241 4284794132
-1.950665 -0.75806946 -1.7660848 4284794132
-1.8494799 -0.36913723 -1.7556623 4284794132
-1.7456787 0.073346853 -1.7498504 4284794132
-1.9504602 -0.85896909 -1.7658092 4284794132
-1.8473904 -0.4609938 -1.7550765 4284794132
-1.7528169 -0.015123371 -1.751657 4284794132
-2.0124726 -1.1948683 -1.7738874 4284794132
-2.0491335 -1.3232822 -1.7828341 4284794132
-1.9535898 -0.96368504 -1.7681198 4284794132
-1.8481208 -0.55421573 -1.7568109 4284794132
-2.0553088 -1.4477233 -1.7855587 4284794132
-1.9511049 -1.0683601 -1.7657052 4284794132
-1.7454742 -0.14790902 -1.7499354 4284794132
-1.8468963 -0.64825195 -1.7564589 4284794132
-1.9893203 -1.3052881 -1.776664 4284794132
-1.8501492 -0.74406844 -1.7549053 4284794132
-1.7476009 -0.27932942 -1.7461323 4284794132
-1.9483926 -1.1783245 -1.7684568 4284794132
-1.8449953 -0.84177738 -1.7564427 4284794132
-1.741585 -0.36783493 -1.7470071 4284794132
-1.935158 -1.2876384 -1.767768 4284794132
-1.855087 -0.94467443 -1.7596663 4284794132
-1.7455312 -0.45681354 -1.7468953 4284794132
-1.6462201 0.059961095 -1.7452744 4284794132
-1.954957 -1.4146438 -1.7764033 4284794132
-1.6453946 -0.025842706 -1.7407975 4284794132
-1.7489561 -0.54796726 -1.7515881 4284794132
-1.8502312 -1.0473336 -1.7612504 4284794132
-1.7503868 -0.63868141 -1.7487259 4284794132
-1.6501328 -0.15642577 -1.7432182 4284794132
-1.7548704 -0.73230648 -1.7489308 4284794132
-1.8433832 -1.1520345 -1.7609882 4284794132
-1.6512244 -0.28146064 -1.7418483 4284794132
-1.8578614 -1.2676404 -1.7664576 4284794132
-1.7465228 -0.82598919 -1.7480217 4284794132
-1.7562113 -0.92602581 -1.7518713 4284794132
-1.6445966 -0.36723405 -1.742445 4284794132
-1.8523514 -1.3810178 -1.7666953 4284794132
-1.6434971 -0.45254233 -1.738541 4284794132
-1.7492229 -1.0246516 -1.751937 4284794132
-1.6499525 -0.54049385 -1.7415264 4284794132
-1.5439831 0.046896886 -1.7374938 4284794132
-1.5457828 -0.036017045 -1.736205 4284794132
-1.5615218 -0.13666302 -1.7377089 4284794132
-1.6462508 -0.62822056 -1.7397889 4284794132
-1.7428063 -1.1264755 -1.7522936 4284794132
-1.6514707 -0.71932846 -1.7415042 4284794132
-1.7471659 -1.2353612 -1.7557156 4284794132
-1.5425999 -0.24998854 -1.7328368 4284794132
-1.7500964 -1.3483982 -1.7581853 4284794132
-1.6371832 -0.83989793 -1.7394458 4284794132
-1.5497743 -0.36586335 -1.7348717 4284794132
-1.6514251 -0.94875842 -1.742824 4284794132
-1.5513338 -0.44929945 -1.7340882 4284794132
-1.6447952 -1.0512489 -1.7431552 4284794132
-1.5493228 -0.53378457 -1.7349356 4284794132
-1.4481362 0.035119664 -1.7300897 4284794132
-1.6474637 -1.136394 -1.7436008 4284794132
-1.6574507 -1.2096965 -1.7474467 4284794132
-1.5422496 -0.61772352 -1.7305536 4284794132
-1.4483792 -0.045175456 -1.7280211 4284794132
-1.4506214 -0.1248448 -1.7287246 4284794132
-1.651046 -1.3160591 -1.7475269 4284794132
-1.5438538 -0.75023699 -1.7334644 4284794132
-1.4483633 -0.24460888 -1.7285423 4284794132
-1.5521406 -0.87830347 -1.7370894 4284794132
-1.451383 -0.36464438 -1.7285172 4284794132
-1.5503561 -0.98207957 -1.7370498 4284794132
-1.4494119 -0.44470778 -1.7248907 4284794132
-1.5999063 -1.3007162 -1.7444655 4284794132
-1.5470091 -1.0777804 -1.735679 4284794132
-1.4487212 -0.52696884 -1.7277731 4284794132
-1.5496435 -1.1800972 -1.739156 4284794132
-1.3545235 0.023925895 -1.7241637 4284794132
-1.4515121 -0.65239489 -1.7276173 4284794132
-1.3530118 -0.053896129 -1.7209358 4284794132
-1.550792 -1.2861973 -1.7415733 4284794132
-1.3495725 -0.13136528 -1.7212561 4284794132
-1.4427378 -0.77954662 -1.7259696 4284794132
-1.4476932 -0.86957991 -1.7286139 4284794132
-1.3449603 -0.24687782 -1.7196045 4284794132
-1.4499227 -0.96066785 -1.7283392 4284794132
-1.4555798 -1.057062 -1.7312502 4284794132
-1.34882 -0.36329955 -1.7217953 4284794132
-1.348736 -0.44134498 -1.7208704 4284794132
-1.4491607 -1.1532649 -1.7318419 4284794132
-1.4551722 -1.2576613 -1.73457 4284794132
-1.3409067 -0.54242438 -1.7199812 4284794132
-1.3568841 -0.65489066 -1.7229385 4284794132
-1.2503241 0.012130149 -1.714705 4284794132
-1.2506751 -0.062974766 -1.714355 4284794132
-1.3470057 -0.76560467 -1.7195871 4284794132
-1.2477431 -0.13789922 -1.7159493 4284794132
-1.3451102 -0.85158145 -1.721104 4284794132
-1.3466837 -0.93976039 -1.7210681 4284794132
-1.2491708 -0.2512241 -1.7148294 4284794132
-1.3473203 -1.0303557 -1.7198051 4284794132
-1.2470978 -0.36164412 -1.7140118 4284794132
-1.3497541 -1.1274805 -1.7250985 4284794132
-1.2469165 -0.43723124 -1.7137902 4284794132
-1.348804 -1.2266349 -1.7269342 4284794132
-1.2495455 -0.55086607 -1.7141244 4284794132
-1.1675279 0.0030272661 -1.7092959 4284794132
-1.2474866 -0.67070144 -1.713937 4284794132
-1.2477822 -0.75158691 -1.7135259 4284794132
-1.2520057 -0.83681369 -1.7177238 4284794132
-1.1404132 -0.049719632 -1.7075504 4284794132
-1.1500417 -0.14343797 -1.7082242 4284794132
-1.2386738 -0.9394536 -1.7118958 4284794132
-1.1526709 -0.24801716 -1.7073166 4284794132
-1.2747571 -1.2055581 -1.7219115 4284794132
-1.2446537 -1.0454139 -1.7137828 4284794132
-1.2529832 -1.1509711 -1.7197225 4284794132
-1.1475486 -0.35988614 -1.7066123 4284794132
-1.14679 -0.43301362 -1.70652 4284794132
-1.1512643 -0.54519284 -1.707927 4284794132
-1.1542194 -0.65982509 -1.7073731 4284794132
-1.1000421 -0.2867727 -1.6975094 4284794132
-1.1474305 -0.7366662 -1.7045654 4284794132
-1.0695676 -0.039722461 -1.7043021 4284794132
-1.0710841 -0.14768797 -1.7028667 4284794132
-1.1464922 -0.83990633 -1.7074953 4284794132
-1.1579862 -0.95275968 -1.707278 4284794132
-1.0755649 -0.24574444 -1.702513 4284794132
-1.0691289 -0.35888392 -1.703371 4284794132
-1.1476388 -1.075857 -1.7094803 4284794132
-1.0716964 -0.42998177 -1.7018999 4284794132
-1.0302089 -0.051470589 -1.6967975 4284794132
-1.1510414 -1.1711056 -1.7131768 4284794132
-1.0714401 -0.53492224 -1.7023368 4284794132
-1.0342431 -0.25795251 -1.6968223 4284794132
-1.0178983 -0.15016648 -1.6973412 4284794132
-1.064484 -0.6500091 -1.7025954 4284794132
-1.0818353 -0.82750046 -1.7024968 4284794132
-1.0679452 -0.7266376 -1.7020065 4284794132
-1.0481828 -0.55794871 -1.6975434 4284794132
-1.0247414 -0.35707998 -1.6954712 4284794132
-1.0853559 -0.97193336 -1.701045 4284794132
-1.0484178 -0.64701319 -1.6977218 4284794132
-1.0277472 -0.45982724 -1.6965867 4284794132
-1.0700296 -1.057435 -1.7049106 4284794132
-1.0340174 -0.75056493 -1.6964371 4284794132
-1.0398742 -0.87160927 -1.6961613 4284794132
-1.0361042 -0.9612695 -1.6971229 4284794132
-0.94997555 -0.050978567 -1.6917833 4284794132
-1.0565518 -1.145087 -1.7055134 4284794132
-0.94964576 -0.15345097 -1.6930002 4284794132
-0.95084834 -0.25289792 -1.6910238 4284794132
-1.0222391 -1.0438359 -1.6969759 4284794132
-0.95005947 -0.35571575 -1.6909597 4284794132
-0.9511289 -0.45643502 -1.6915925 4284794132
-1.0091455 -1.1298755 -1.6970744 4284794132
-0.95177639 -0.56425518 -1.6912625 4284794132
-0.95084321 -0.63677436 -1.6929487 4284794132
-0.94956797 -0.74940187 -1.6922385 4284794132
-0.94923782 -0.8633855 -1.69243 4284794132
-0.94923377 -0.94226611 -1.688987 4284794132
-0.95228124 -1.0289294 -1.6948501 4284794132
-0.94756281 -1.1155667 -1.6957331 4284794132
-0.95080483 -1.1189746 -1.700841 4284794132
-0.84885567 -0.059957188 -1.6855396 4284794132
-0.85098743 -0.15753593 -1.6847664 4284794132
-0.85003078 -0.25516674 -1.6839368 4284794132
-0.8590613 -0.35449919 -1.6887116 4284794132
-0.8515569 -0.45497933 -1.6849892 4284794132
-0.85070807 -0.55617315 -1.6868944 4284794132
-0.88923943 -1.1004152 -1.6910822 4284794132
-0.85575217 -0.75809348 -1.6879171 4284794132
-0.84434515 -0.6564163 -1.6855873 4284794132
-0.85047203 -0.84571511 -1.6854159 4284794132
-0.84362471 -0.93961024 -1.6835408 4284794132
-0.81493396 -0.3566584 -1.7025049 4284794132
-0.8512513 -1.0560815 -1.6900555 4284794132
-0.75133067 -0.064239025 -1.6788751 4284794132
-0.77057666 -0.35597003 -1.7019066 4284794132
-0.75043184 -0.25572103 -1.6772605 4284794132
-0.74419397 -0.15185066 -1.6809524 4284794132
-0.75068498 -0.44798625 -1.6777245 4284794132
-0.75040066 -0.54744005 -1.6798841 4284794132
-0.74790031 -0.64923871 -1.6785583 4284794132
-0.73836231 -0.35351133 -1.6913593 4284794132
-0.75091052 -0.75604975 -1.6802344 4284794132
-0.75646597 -0.95471311 -1.6773586 4284794132
-0.74387836 -0.84723228 -1.6757319 4284794132
-0.750844 -1.0675451 -1.6830031 4284794132
-0.64988351 -0.041612066 -1.6722437 4284794132
-0.64719522 -0.13374411 -1.6725855 4284794132
-0.64898145 -0.25542417 -1.6680077 4284794132
-0.6502496 -0.34804007 -1.6696864 4284794132
-0.6478737 -0.44222349 -1.6709135 4284794132
-0.64796442 -0.54175955 -1.6693157 4284794132
-0.6501115 -0.63904655 -1.6714618 4284794132
-0.65240157 -0.74083924 -1.6709888 4284794132
-0.65104854 -0.84672606 -1.6668208 4284794132
-0.65011781 -0.96080452 -1.6691768 4284794132
-0.65057504 -1.0416752 -1.6709813 4284794132
-0.54791212 -0.047243398 -1.6620455 4284794132
-0.54751003 -0.13652565 -1.6638974 4284794132
-0.5483532 -0.25488329 -1.6610309 4284794132
-0.54836333 -0.34487447 -1.6629604 4284794132
-0.5487169 -0.43523535 -1.6632491 4284794132
-0.55016679 -0.55986756 -1.6639436 4284794132
-0.55622411 -0.85481834 -1.66079 4284794132
-0.54792386 -0.65801656 -1.6609085 4284794132
-0.54674089 -0.75638849 -1.6620656 4284794132
-0.54892313 -0.94066656 -1.6619612 4284794132
-0.54860902 -1.0198112 -1.6647214 4284794132
-0.48020974 -1.0058678 -1.6605657 4284794132
-0.46054676 -0.44180152 -1.6573043 4284794132
-0.45003802 -0.051546421 -1.6549816 4284794132
-0.44883683 -0.13750769 -1.6549082 4284794132
-0.44918564 -0.25462469 -1.6551698 4284794132
-0.44936305 -0.55378771 -1.6547103 4284794132
-0.44966832 -0.64646345 -1.6537428 4284794132
-0.45117906 -0.84899443 -1.653188 4284794132
-0.44911543 -0.74464208 -1.6540916 4284794132
-0.43991107 -0.36353448 -1.6551526 4284794132
-0.44180065 -0.94866771 -1.6560762 4284794132
-0.35688907 -0.95124024 -1.6492212 4284794132
-0.35599318 -0.74742681 -1.6472453 4284794132
-0.35075286 -0.5429073 -1.6498952 4284794132
-0.34977809 -0.45346788 -1.648858 4284794132
-0.34945226 -0.2508418 -1.6451828 4284794132
-0.35129768 -0.054610062 -1.6466118 4284794132
-0.34953246 -0.36547059 -1.648917 4284794132
-0.34912497 -0.13903506 -1.64352 4284794132
-0.34334266 -0.84745806 -1.6446697 4284794132
-0.34304184 -0.65756524 -1.64696 4284794132
-0.25099549 -0.95973462 -1.6387849 4284794132
-0.25027505 -0.85259461 -1.6387305 4284794132
-0.24967833 -0.7514205 -1.6394215 4284794132
-0.24951977 -0.65639597 -1.6411805 4284794132
-0.25002 -0.53480512 -1.6424999 4284794132
-0.24927208 -0.44638124 -1.6414237 4284794132
-0.2488247 -0.36081305 -1.6403526 4284794132
-0.2498378 -0.24822511 -1.6381845 4284794132
-0.24903238 -0.13875207 -1.6365168 4284794132
-0.24964269 -0.056200139 -1.6384805 4284794132
-0.15171064 -0.94305396 -1.6310496 4284794132
-0.15469922 -0.84360391 -1.6332079 4284794132
-0.15437582 -0.54815495 -1.6370881 4284794132
-0.14933679 -0.64495736 -1.632762 4284794132
-0.14465579 -0.74942636 -1.6317618 4284794132
-0.14700569 -0.4647539 -1.6351548 4284794132
-0.15004005 -0.35477868 -1.6341555 4284794132
-0.15025654 -0.24529508 -1.6300745 4284794132
-0.14928457 -0.13792428 -1.6301091 4284794132
-0.14989467 -0.056171101 -1.631392 4284794132
-0.050302818 -0.92797399 -1.6238291 4284794132
-0.048904985 -0.85897082 -1.6259818 4284794132
-0.051050115 -0.75918472 -1.6246735 4284794132
-0.051099055 -0.63549864 -1.6255025 4284794132
-0.04609073 -0.55190492 -1.6290619 4284794132
-0.04991015 -0.45979732 -1.6257522 4284794132
-0.050428379 -0.34992227 -1.6262705 4284794132
-0.050464284 -0.24079415 -1.6229151 4284794132
-0.049153179 -0.13367581 -1.6230284 4284794132
-0.050897796 -0.054396886 -1.6225413 4284794132
0.051113416 -0.91437048 -1.6163619 4284794132
0.051551349 -0.84598368 -1.6178715 4284794132
0.050294489 -0.74733889 -1.6165167 4284794132
0.05135126 -0.65424728 -1.6174047 4284794132
0.051232319 -0.56454974 -1.6173285 4284794132
0.050138041 -0.45246682 -1.6182588 4284794132
0.048948992 -0.34159482 -1.6171749 4284794132
0.049137928 -0.2351232 -1.6145564 4284794132
0.050820544 -0.12923671 -1.6155922 4284794132
0.049885429 -0.050721142 -1.6136552 4284794132
0.13626099 -0.90384334 -1.6094233 4284794132
0.15626995 -0.85026169 -1.6079736 4284794132
0.14967857 -0.73675346 -1.6085401 4284794132
0.14947666 -0.6440711 -1.6082468 4284794132
0.15040304 -0.55624247 -1.6072862 4284794132
0.14825779 -0.44166476 -1.6079848 4284794132
0.19090924 -0.826666 -1.59989 4284794132
0.14989889 -0.3347286 -1.6090438 4284794132
0.14296085 -0.23088466 -1.6058215 4284794132
0.1937446 -0.63789517 -1.5997591 4284794132
0.14870605 -0.15005299 -1.6080445 4284794132
0.18756236 -0.5219475 -1.5997449 4284794132
0.21238919 -0.74621826 -1.6033432 4284794132
0.16776422 -0.25224608 -1.5973195 4284794132
0.15261714 -0.069268905 -1.6066025 4284794132
0.19636646 -0.46541125 -1.5999682 4284794132
0.23676138 -0.85545623 -1.6029531 4284794132
0.18081267 -0.19945803 -1.599776 4284794132
0.2195911 -0.53834438 -1.6029724 4284794132
0.23531897 -0.67312121 -1.6025242 4284794132
0.18688235 -0.068863571 -1.5994117 4284794132
0.26776552 -0.85952926 -1.5973686 4284794132
0.26276651 -0.75580817 -1.5960721 4284794132
0.23360892 -0.42622009 -1.6024495 4284794132
0.26331523 -0.65824485 -1.5972427 4284794132
0.23710354 -0.34143028 -1.6033697 4284794132
0.25982264 -0.54789132 -1.5960566 4284794132
0.23679863 -0.26288816 -1.6030132 4284794132
0.26112407 -0.44120336 -1.5959609 4284794132
0.23142326 -0.15778662 -1.6031475 4284794132
0.22255182 -0.066274606 -1.6022204 4284794132
0.25428045 -0.3313908 -1.5989685 4284794132
0.2682755 -0.26587027 -1.5964392 4284794132
0.26326844 -0.17503335 -1.59556 4284794132
0.34936348 -0.84942949 -1.5913628 4284794132
0.26316699 -0.061906666 -1.5961264 4284794132
0.34912422 -0.74858999 -1.589433 4284794132
0.35061175 -0.65590703 -1.5903713 4284794132
0.32509285 -0.40253955 -1.601104 4284794132
0.34949496 -0.53819513 -1.5889312 4284794132
0.34185925 -0.44012061 -1.5913001 4284794132
0.35702094 -0.36316881 -1.5898862 4284794132
0.34981218 -0.26469088 -1.5889326 4284794132
0.35069096 -0.15892661 -1.5894687 4284794132
0.44967499 -0.84010679 -1.5830415 4284794132
0.34952623 -0.054351225 -1.5899354 4284794132
0.45014566 -0.74049938 -1.5804751 4284794132
0.45036596 -0.64811808 -1.5824841 4284794132
0.44480264 -0.53323406 -1.5827588 4284794132
0.45768514 -0.45435667 -1.5809091 4284794132
0.44928107 -0.36281082 -1.5858396 4284794132
0.45023799 -0.25382558 -1.5825734 4284794132
0.54614139 -0.84075534 -1.5779551 4284794132
0.45273206 -0.14661613 -1.5779006 4284794132
0.55736727 -0.74599415 -1.5738546 4284794132
0.45149189 -0.043974489 -1.5666162 4284794132
0.55080897 -0.64113367 -1.5767266 4284794132
0.54998958 -0.55078256 -1.5746763 4284794132
0.54871666 -0.46454349 -1.5755644 4284794132
0.53352576 -0.35969207 -1.5785791 4284794132
0.52458614 -0.24664381 -1.5771666 4284794132
0.6470018 -0.86056983 -1.571228 4284794132
0.52299321 -0.14028087 -1.550029 4284794132
0.65173376 -0.76087093 -1.5685921 4284794132
0.52051467 -0.014900691 -1.5593667 4284794132
0.60690594 -0.47804695 -1.5751903 4284794132
0.6495989 -0.63663018 -1.5695797 4284794132
0.63475549 -0.54505926 -1.5698292 4284794132
0.74682373 -0.86477703 -1.5636798 4284794132
0.74996728 -0.76046473 -1.5606524 4284794132
0.73549974 -0.65696806 -1.5607108 4284794132
0.83739483 -0.8629747 -1.5558643 4284794132
0.81803805 -0.76636815 -1.5548158 4284794132
