# .PCD v0.7 - Point Cloud Data file format
VERSION 0.7
FIELDS x y z rgb
SIZE 4 4 4 4
TYPE F F F U
COUNT 1 1 1 1
WIDTH 1143
HEIGHT 1
VIEWPOINT 0 0 0 1 0 0 0
POINTS 1143
DATA ascii
4.4548979 1.8086052 2.3841643 4284991081
4.6904187 1.5097755 2.5862591 4285747711
4.4389734 1.6214274 2.4474144 4284991081
4.4163346 1.2373984 2.4669614 4284991081
4.444922 1.8257698 2.4528823 4284991081
4.6419945 1.5100821 2.625946 4285747711
4.4117188 1.0629693 2.526505 4285747711
5.8526864 1.6871192 3.4232168 4285747711
4.5057325 1.0912749 2.6039674 4285747711
5.7981987 1.6762904 3.4144244 4285747711
4.6092043 1.1222399 2.688278 4285747711
4.4324112 1.6467117 2.5471478 4285747711
4.6065474 1.1256487 2.7064459 4285747711
4.6506338 1.3344882 2.7277665 4285747711
4.4359183 1.8522049 2.5515645 4285747711
4.561636 1.5091215 2.6846852 4285747711
4.5287066 1.1134049 2.6964326 4285747711
4.5582795 1.3153148 2.7090194 4285747711
4.4420099 1.2884953 2.6734264 4285747711
4.4279876 1.673864 2.6503532 4285747711
4.4308176 1.8785681 2.644995 4285747711
4.4231501 1.4800144 2.6743765 4285747711
4.4033303 1.0964781 2.6931839 4285747711
4.4030051 1.2944658 2.7261136 4285747711
4.4236574 1.895944 2.7090356 4285747711
4.4127531 1.4937813 2.7363193 4285747711
4.4176855 1.6941377 2.7319527 4285747711
4.4155297 1.9103816 2.7633591 4285747711
4.4129114 1.7061061 2.7785022 4285747711
4.397438 1.5035264 2.7855573 4285747711
4.4016037 1.3149239 2.8144672 4285747711
4.3791146 1.1276673 2.8548188 4285747711
4.4019165 1.5207719 2.8490105 4285747711
4.3882375 1.3225415 2.8555465 4285747711
4.4111009 1.7253023 2.84794 4285747711
4.4132342 1.9372261 2.8527892 4285747711
4.3966155 1.5320497 2.8961458 4285747711
4.4037495 1.742605 2.9143817 4285747711
4.3845549 1.3432148 2.9448256 4285747711
4.3776879 1.1521913 2.969429 4285747711
4.3941088 1.5473459 2.9562545 4285747711
4.4050884 1.9638441 2.9450219 4285747711
4.3985562 1.7552943 2.9625196 4285747711
4.3974714 1.9683771 2.9655375 4285747711
4.4035969 1.9845005 3.0120947 4285747711
4.3792281 1.3665154 3.0451682 4285747711
4.3716278 1.1701422 3.0553854 4285747711
4.3917875 1.7767525 3.041738 4285747711
4.3846369 1.5715072 3.0541778 4285747711
4.3952732 1.9939572 3.0484636 4285747711
4.3572512 0.99060476 3.1330783 4285747711
4.3807774 2.0040023 3.0911269 4285747711
4.3899908 1.7977934 3.1152318 4285747711
4.3781066 1.5918541 3.1347876 4285747711
4.370481 1.3894876 3.1451962 4285747711
4.3628082 1.1909678 3.1551898 4285747711
4.3514547 0.80562449 3.1761458 4285747711
4.3585362 1.0015204 3.1877909 4285747711
4.383656 1.8109865 3.1646664 4285747711
4.3715324 1.6039066 3.1839881 4285747711
4.3351226 2.0060544 3.1317647 4285747711
4.3517509 1.0127888 3.24791 4285747711
4.3444381 0.81940001 3.2575059 4285747711
4.362587 1.4135448 3.2481713 4285747711
4.3548651 1.2127453 3.2579758 4285747711
4.3719969 1.6219578 3.2504625 4285747711
4.3747401 1.833148 3.2458987 4285747711
4.2736244 2.0074408 3.1814127 4285747711
4.3338175 0.8346954 3.3484876 4285747711
4.3327265 0.64318746 3.362885 4285747711
4.3443236 1.0330021 3.3529296 4285747711
4.3505397 1.2338251 3.3548651 4285747711
4.363255 1.6460098 3.3443916 4285747711
4.3553915 1.4387128 3.3542027 4285747711
4.3680744 1.8638003 3.3531532 4285747711
4.2215142 2.0100999 3.2271674 4285747711
4.3308144 0.65674996 3.4517794 4285747711
4.323245 0.46322137 3.4592979 4285747711
4.3258615 0.8510114 3.4437115 4285747711
4.3351712 1.0511332 3.447541 4285747711
4.3391414 1.2534263 3.4480522 4285747711
4.343648 1.4602687 3.4473994 4285747711
4.3621464 1.8888747 3.4403141 4285747711
4.3536048 1.673715 3.451175 4285747711
4.1626172 2.01315 3.2779908 4285747711
4.3229842 0.47473225 3.547487 4285747711
4.3574281 1.9009045 3.4830861 4285747711
4.3211036 0.67112648 3.547467 4285747711
4.3205371 0.86836052 3.543288 4285747711
4.3231683 1.0690911 3.5418496 4285747711
4.3506317 1.6952744 3.5307148 4285747711
4.3315144 1.2748297 3.5465016 4285747711
4.3378196 1.484733 3.5478539 4285747711
4.1172476 2.0158908 3.3176684 4285747711
4.349472 1.918979 3.5474503 4285747711
4.3435507 1.7056389 3.5721776 4285747711
4.3161721 0.4882752 3.6515813 4285747711
4.3175063 0.68695152 3.6507616 4285747711
4.3282623 1.2928189 3.6270573 4285747711
4.3157434 0.8863734 3.6458373 4285747711
4.3210144 1.0902586 3.6470265 4285747711
4.328702 1.5087912 3.6476994 4285747711
4.0555711 2.0178821 3.3653076 4285747711
4.3372755 1.7267956 3.6512883 4285747711
4.3105831 0.49699569 3.7186313 4285747711
4.3417163 1.9487885 3.6493235 4285747711
4.3215466 1.3045382 3.6815572 4285747711
4.3140097 0.69755638 3.7200074 4285747711
4.3100538 0.89809471 3.7131674 4285747711
4.3093686 0.50323963 3.7663701 4285747711
4.3038568 0.70334244 3.7595789 4285747711
4.3105521 1.109844 3.7473023 4285747711
4.3064141 0.90610057 3.7589314 4285747711
4.3175859 1.3202529 3.7517831 4285747711
4.0009356 2.0198693 3.4075341 4285747711
4.3231015 1.535046 3.7533085 4285747711
4.2982039 0.70806664 3.7913058 4285747711
4.3303967 1.755289 3.7561135 4285747711
4.3317313 1.9786659 3.7517838 4285747711
4.3000712 0.71227437 3.8179288 4285747711
4.3015471 0.51302916 3.8416834 4285747711
4.3030839 0.91879421 3.8304806 4285747711
4.2999496 0.5149883 3.8567424 4285747711
4.2957454 0.71930426 3.8640232 4285747711
4.3117771 1.3415697 3.8467238 4285747711
4.3050518 1.1314453 3.8546672 4285747711
3.9445949 2.0211196 3.447686 4285747711
4.2994008 0.92705786 3.8774133 4285747711
4.3137784 1.9976346 3.8234544 4285747711
4.3229761 1.7809546 3.8504045 4285747711
4.3152151 1.5613241 3.8593798 4285747711
4.3006849 0.93197262 3.904125 4285747711
4.301774 0.52520663 3.9344885 4285747711
4.2912812 1.998688 3.8404777 4285747711
4.294982 0.52653098 3.9450414 4285747711
4.2916808 0.73247743 3.9493101 4285747711
4.3182015 1.7973263 3.9102006 4285747711
4.3034921 1.3627183 3.9414625 4285747711
4.2958884 1.1500444 3.9483287 4285747711
4.2913008 0.94144744 3.9593906 4285747711
3.8813159 2.0226984 3.4925561 4285747711
4.3107743 1.5865066 3.9585662 4285747711
4.2492857 2.0023582 3.8772576 4285747711
4.3114095 1.809393 3.9558871 4285747711
4.2965364 1.3756357 3.9999359 4285747711
4.2850122 0.53991795 4.0476356 4285747711
4.283318 0.74720401 4.0452228 4285747711
4.3025036 1.6039507 4.0295563 4285747711
4.2863464 1.1690993 4.0438032 4285747711
4.2835593 0.95868248 4.0565495 4285747711
3.830934 2.0233986 3.5258758 4285747711
4.2086272 2.006798 3.9153178 4285747711
4.2951403 1.3876244 4.0516186 4285747711
4.3061743 1.8339721 4.0436549 4285747711
4.2954922 1.6152378 4.0761023 4285747711
4.2942281 1.3999437 4.1043577 4285747711
4.2773037 0.76279128 4.1458402 4285747711
4.2742891 0.55413377 4.1564789 4285747711
4.1533589 2.0081625 3.9516695 4285747711
4.3007774 1.8551642 4.1193833 4285747711
4.2804828 1.1898286 4.1452999 4285747711
4.2739978 0.9759708 4.1541567 4285747711
4.290802 1.6348946 4.1529989 4285747711
4.2845812 1.4126837 4.1626248 4285747711
3.7515466 2.0245302 3.5773299 4285747711
4.2952061 1.8686996 4.1686664 4285747711
4.2687025 0.77830243 4.2462416 4285747711
4.2653308 0.56719851 4.256372 4285747711
4.2714696 0.99297303 4.2476258 4285747711
4.085772 2.0075157 3.9882936 4285747711
4.2699714 1.2098031 4.2444801 4285747711
4.2885318 1.886099 4.2314606 4285747711
4.2775488 1.4332074 4.2522645 4285747711
4.2800159 1.6599808 4.2529416 4285747711
3.7023828 2.0261376 3.6111159 4285747711
4.2630453 1.0011241 4.2945294 4285747711
4.2832303 1.9002767 4.2823596 4285747711
4.262455 0.79248935 4.3374891 4285747711
4.2558303 0.58052242 4.3581796 4285747711
4.0335197 2.0105944 4.0269971 4285747711
4.2603455 1.0108762 4.3482776 4285747711
4.2709036 1.4544907 4.3444386 4285747711
4.2615442 1.2310563 4.3484058 4285747711
3.6666539 2.0314004 3.6467202 4285747711
4.2588582 0.80073488 4.3904977 4285747711
4.2796535 1.9198511 4.350369 4285747711
4.2692599 1.6859279 4.3554354 4285747711
4.2598429 0.37918699 4.4782143 4285747711
4.2528567 1.0275795 4.4409604 4285747711
4.2517304 0.81071573 4.4550204 4285747711
4.2444105 0.59388947 4.4604235 4285747711
4.2578926 1.4775655 4.4463396 4285747711
4.2537241 1.2531898 4.4557276 4285747711
3.9528918 2.0119884 4.0754137 4285747711
4.2649212 1.7115068 4.4528413 4285747711
4.2706409 1.9504319 4.4577823 4285747711
3.6484356 2.0653183 3.7517323 4285747711
4.2508078 0.38753894 4.5561147 4285747711
4.2380638 0.60646468 4.5561833 4285747711
4.2517366 1.4967111 4.5284567 4285747711
4.2432647 1.0469638 4.5483341 4285747711
4.2399015 0.82694358 4.5597553 4285747711
3.9033744 2.0122592 4.1028147 4285747711
4.2460322 1.2728802 4.5509973 4285747711
4.2570872 1.7364151 4.5488167 4285747711
4.2607574 1.977101 4.5518479 4285747711
3.6373782 2.0909772 3.828948 4285747711
4.2358618 0.39540359 4.628716 4285747711
4.249464 1.510463 4.5863047 4285747711
4.2322364 0.61743069 4.6396618 4285747711
4.24053 1.2905817 4.6358047 4285747711
4.2320175 0.842062 4.6565018 4285747711
3.6377349 2.1101515 3.8815656 4285747711
4.2369018 0.40190583 4.6906595 4285747711
3.849026 2.0145171 4.1382165 4285747711
4.2322187 1.0665699 4.6569428 4285747711
4.2510257 1.762826 4.6490474 4285747711
4.2421837 1.5262958 4.6546855 4285747711
4.2347188 1.9965776 4.6294508 4285747711
4.2367749 1.3025705 4.6931715 4285747711
4.2261868 0.63063014 4.7402468 4285747711
4.2327237 0.40954322 4.7630348 4285747711
3.6269424 2.1325376 3.9488571 4285747711
4.2207217 0.8568213 4.7516212 4285747711
4.2331891 1.3148561 4.7517047 4285747711
4.2223129 1.0841395 4.7540717 4285747711
4.2334685 1.5495877 4.7541265 4285747711
4.2331362 1.7891518 4.7538137 4285747711
3.7675195 2.0156772 4.1838403 4285747711
4.1561189 1.9972366 4.6698194 4285747711
4.1515827 0.63463151 4.7755556 4285747711
4.1480689 0.41309023 4.7859893 4285747711
4.1381731 2.0000758 4.6878295 4285747711
4.1534696 1.0826674 4.765831 4285747711
4.1451135 0.8574838 4.7705002 4285747711
3.6203022 2.1683178 4.050024 4285747711
4.1554661 1.3126948 4.7690601 4285747711
3.717885 2.016006 4.2099538 4285747711
4.1445384 1.5457495 4.7742786 4285747711
4.0942979 1.9968824 4.6981797 4285747711
4.1498499 1.7865788 4.7814212 4285747711
3.6100888 2.1926377 4.121357 4285747711
4.0497403 0.41323635 4.7748494 4285747711
4.0716114 1.9997447 4.718236 4285747711
4.0538182 1.0752606 4.7542963 4285747711
4.0463972 0.85271466 4.7595081 4285747711
4.042469 0.63258326 4.7671642 4285747711
4.058979 1.3039616 4.7620869 4285747711
3.5887842 2.1946068 4.1377077 4285747711
4.0444393 1.5332646 4.7630105 4285747711
4.0511718 1.7722824 4.7724333 4285747711
3.6440241 2.0169196 4.2491999 4285747711
4.0288167 2.0019927 4.7455087 4285747711
4.0021696 1.298209 4.7549667 4285747711
3.5836134 2.2071457 4.1741686 4285747711
3.9532232 0.41329712 4.7633848 4285747711
3.9516575 0.84851408 4.751184 4285747711
3.9437702 0.62990016 4.7532802 4285747711
3.9452615 1.0678442 4.7448893 4285747711
3.9911642 2.0020046 4.7629275 4285747711
3.9472606 1.292931 4.74931 4285747711
3.9483397 1.5218718 4.7541695 4285747711
3.9527988 1.7576098 4.7614732 4285747711
3.9394376 1.9944814 4.7620373 4285747711
3.5623324 2.2365656 4.263824 4285747711
3.856216 0.84378994 4.7394919 4285747711
3.8483143 0.62745321 4.7409267 4285747711
3.8452821 0.41332716 4.7504454 4285747711
3.8529656 1.0617511 4.737679 4285747711
3.8519077 1.2836461 4.7385302 4285747711
3.5635686 2.0290952 4.3238363 4285747711
3.8521225 1.5099845 4.7428842 4285747711
3.8552215 1.7427465 4.748908 4285747711
3.846266 1.9795123 4.7554121 4285747711
3.7642488 0.83956546 4.7300777 4285747711
3.7575283 0.62556821 4.7324667 4285747711
3.7574348 0.4139078 4.7454534 4285747711
3.7848482 1.5018017 4.735239 4285747711
3.7564371 1.0539813 4.7224202 4285747711
3.7588043 1.2747476 4.7284379 4285747711
3.4546731 2.2253346 4.286932 4285747711
3.7580116 1.7274976 4.7343898 4285747711
3.6978724 0.83358121 4.7049909 4285747711
3.7266271 1.4931524 4.7222352 4285747711
3.6843441 0.6224404 4.7136707 4285747711
3.6839354 0.41275674 4.7258978 4285747711
3.7488029 1.961619 4.7408509 4285747711
3.4541776 2.0188549 4.3451033 4285747711
3.6643181 1.2577584 4.6816616 4285747711
3.6408997 1.036845 4.6626701 4285747711
3.6396728 0.82684076 4.6737289 4285747711
3.6889274 1.7118256 4.7066145 4285747711
3.6355326 0.61953014 4.6949244 4285747711
3.6152503 0.40876704 4.6795516 4285747711
3.6412375 1.4725502 4.6711922 4285747711
3.6837256 1.9458404 4.7186198 4285747711
3.6459048 1.6996448 4.6805792 4285747711
3.3730087 1.160126 4.3302112 4285747711
3.3171868 0.75369841 4.2766938 4285747711
3.3152094 0.56257886 4.2837677 4285747711
3.3039119 0.37114897 4.2795043 4285747711
3.315918 0.94774735 4.2781396 4285747711
3.3458257 1.5591116 4.3003702 4285747711
3.315093 1.1450664 4.2801867 4285747711
3.358592 1.777765 4.3205919 4285747711
3.3149574 1.3462645 4.2847548 4285747711
3.3427868 2.2049165 4.2866297 4285747711
3.3201041 1.5546681 4.2948761 4285747711
3.3353353 1.9861455 4.3045826 4285747711
3.2477641 0.37120157 4.2739773 4285747711
3.3077719 1.7631665 4.2957082 4285747711
3.2501857 0.75088018 4.2714481 4285747711
3.2464721 0.5608862 4.275703 4285747711
3.2466297 0.94276708 4.2700925 4285747711
3.2474544 1.1391176 4.2747488 4285747711
3.244977 1.3378351 4.2765055 4285747711
3.288624 2.2014401 4.3029823 4285747711
3.2491817 1.544161 4.2857451 4285747711
3.2532628 1.7556502 4.2948861 4285747711
3.251822 1.9695854 4.2941694 4285747711
3.2413304 2.1910236 4.297544 4285747711
3.1466877 0.37101823 4.261611 4285747711
3.1486714 0.74603015 4.2596979 4285747711
3.1475024 0.55883223 4.2670212 4285747711
3.1465783 0.93609095 4.2608418 4285747711
3.1466541 1.1300173 4.2651615 4285747711
3.1458979 1.3272833 4.2698164 4285747711
3.1462946 1.5296379 4.2744818 4285747711
3.1511741 1.7393106 4.2854772 4285747711
3.151341 1.9520504 4.2878203 4285747711
3.1511357 2.1727948 4.2909389 4285747711
3.0767221 0.55822843 4.2673373 4285747711
3.0700197 0.37243697 4.267643 4285747711
3.0725622 0.7451098 4.2675633 4285747711
3.0761366 1.1256603 4.2671914 4285747711
3.0695317 0.93369645 4.2678237 4285747711
3.0734763 1.3208441 4.269587 4285747711
3.0846488 1.7289304 4.2798142 4285747711
3.0788345 1.5245079 4.2821522 4285747711
3.0906601 1.944157 4.291276 4285747711
3.0556164 0.56784236 4.3419843 4285747711
3.048358 0.38013351 4.3409572 4285747711
3.0518546 2.15311 4.283886 4285747711
3.0733018 1.7468756 4.3408957 4285747711
3.0617552 1.3388507 4.3448563 4285747711
3.0588424 1.1426443 4.3490772 4285747711
3.0528965 0.94865602 4.3502626 4285747711
3.0507331 0.75890702 4.3570805 4285747711
3.0766563 1.9622968 4.3488312 4285747711
3.0634868 1.5429006 4.352499 4285747711
3.0721459 1.9874651 4.4221539 4285747711
3.0419142 0.58139157 4.4460506 4285747711
3.0382824 0.39135298 4.4502239 4285747711
3.0489533 1.1632599 4.4447894 4285747711
3.0447474 0.96704751 4.4483128 4285747711
3.0410388 0.77401489 4.4524474 4285747711
3.0639346 1.7820323 4.4549422 4285747711
3.0566163 1.5712392 4.4541807 4285747711
3.051327 1.3662314 4.4563408 4285747711
2.9520893 2.1321044 4.2727394 4285747711
3.068182 2.0078945 4.4816074 4285747711
3.0243728 0.39738128 4.5082631 4285747711
3.0320919 0.59412867 4.5436845 4285747711
3.0477648 1.5946982 4.5392027 4285747711
3.0411325 1.1855733 4.5472012 4285747711
3.035708 0.98583853 4.5484138 4285747711
3.0317309 0.78980148 4.5518074 4285747711
3.0254598 0.40252534 4.5590649 4285747711
3.0541191 1.8130794 4.5557747 4285747711
3.0442715 1.3921932 4.5606952 4285747711
3.0360115 2.0268259 4.5479507 4285747711
3.0450737 1.6077217 4.5854769 4285747711
3.0246038 0.60117507 4.597847 4285747711
2.8466649 2.1119022 4.2651443 4285747711
3.0279279 0.99917245 4.6196342 4285747711
3.0201333 0.41014361 4.6337609 4285747711
3.0185535 0.60646677 4.6385384 4285747711
3.0320413 1.4121879 4.6429992 4285747711
3.0294437 1.2070433 4.6466384 4285747711
3.0159121 0.80420542 4.6435814 4285747711
3.0137727 0.21795063 4.6646113 4285747711
3.04018 1.8427659 4.65345 4285747711
3.0318434 1.6249532 4.6499562 4285747711
3.0182676 1.0055504 4.6550503 4285747711
2.9651308 2.0307384 4.5868678 4285747711
2.9641182 1.0023242 4.6510134 4285747711
2.9497533 0.60642529 4.6430817 4285747711
2.7519963 2.0929546 4.2554398 4285747711
2.9495234 0.41257197 4.6517601 4285747711
2.9613132 1.2044481 4.6543226 4285747711
2.9467785 0.80306703 4.6481652 4285747711
2.9557862 1.4090286 4.6549597 4285747711
2.9542089 1.6201973 4.6604066 4285747711
2.9539387 1.8371751 4.667932 4285747711
2.9201605 0.99940842 4.6460786 4285747711
2.9140074 2.0306082 4.6061954 4285747711
2.9064445 1.1997318 4.6485868 4285747711
2.8821402 0.80032349 4.6419086 4285747711
2.8803895 1.4015975 4.6495771 4285747711
2.8538313 0.60437411 4.6342025 4285747711
2.6589942 2.0744042 4.2452164 4285747711
2.8543015 0.41253114 4.6435118 4285747711
2.8565698 0.99568033 4.6412926 4285747711
2.8554969 1.6076736 4.6505723 4285747711
2.8439224 1.1952865 4.645915 4285747711
2.8284283 0.7979005 4.6357589 4285747711
2.8484163 2.0324404 4.6359239 4285747711
2.844933 1.8216261 4.6590152 4285747711
2.8256969 1.3955704 4.6429257 4285747711
2.758574 0.60207164 4.6231818 4285747711
2.7575989 0.41188464 4.6293006 4285747711
2.7520499 0.98960179 4.6331477 4285747711
2.7453725 0.79464865 4.6289115 4285747711
2.550375 2.0548363 4.2374215 4285747711
2.74877 1.1876124 4.6372585 4285747711
2.7491386 1.5949787 4.6417613 4285747711
2.7422516 1.3877239 4.6374435 4285747711
2.7514246 2.0230873 4.6453648 4285747711
2.7475026 1.8073152 4.6488352 4285747711
2.6854768 0.60027927 4.6143103 4285747711
2.6552713 0.41168195 4.6190796 4285747711
2.6562915 1.1806225 4.6302924 4285747711
2.648859 0.98344171 4.6236348 4285747711
2.6421776 0.79031742 4.6182404 4285747711
2.6369684 0.59977418 4.6136394 4285747711
2.6480529 1.3781538 4.627923 4285747711
2.6562133 2.0077865 4.6367536 4285747711
2.6241651 0.22464824 4.619545 4285747711
2.6527691 1.7940756 4.6401949 4285747711
2.6452076 1.5829611 4.6335673 4285747711
2.553648 0.59724098 4.5998793 4285747711
2.5564129 0.5979507 4.6050816 4285747711
2.5568504 0.41176176 4.612514 4285747711
2.5481012 0.2263304 4.6181703 4285747711
2.5580554 1.3703068 4.6232252 4285747711
2.5543988 1.1726096 4.6206932 4285747711
2.5477092 0.97746915 4.6142092 4285747711
2.5421307 0.78646368 4.6097765 4285747711
2.5551429 1.9937035 4.6326642 4285747711
2.5505013 1.7806669 4.6327362 4285747711
2.541898 1.5704465 4.6226692 4285747711
2.3750665 2.0508754 4.2907834 4291672747
2.4978862 0.59691888 4.6010966 4291672747
2.4710732 0.41141197 4.6030326 4291672747
2.4548886 0.78350252 4.6046438 4291672747
2.4544208 0.22791551 4.6105113 4291672747
2.3221984 2.052346 4.3125672 4291672747
2.4568372 1.3601539 4.6121817 4291672747
2.4541538 1.1646965 4.6105251 4291672747
2.4499345 0.97230184 4.6077628 4291672747
2.4388595 0.59553164 4.5944881 4291672747
2.4379964 0.4111751 4.5984659 4291672747
2.4549127 1.9793656 4.6266475 4291672747
2.4511521 1.768556 4.6273947 4291672747
2.4432924 1.5602306 4.6173406 4291672747
2.4177132 0.22785795 4.5979834 4291672747
2.4059198 0.78149885 4.5995979 4291672747
2.381747 0.9684552 4.6017866 4291672747
2.2537444 2.0539391 4.3393226 4291672747
2.3667254 1.1584188 4.603951 4291672747
2.3497887 0.41045532 4.585896 4291672747
2.3487082 0.22852987 4.5865169 4291672747
2.3481872 0.77922785 4.5942316 4291672747
2.3430974 0.59357154 4.5861611 4291672747
2.3494444 1.3504148 4.6037135 4291672747
2.3548827 1.9641771 4.6174054 4291672747
2.3513536 1.7551291 4.6174455 4291672747
2.3448653 1.5492718 4.6087708 4291672747
2.3332551 0.96556073 4.5967374 4291672747
2.3087995 0.047407962 4.5614867 4291672747
2.317435 1.1542664 4.5975337 4291672747
2.2835507 1.3452995 4.6015806 4291672747
2.252969 0.049074978 4.5553489 4291672747
2.2514765 0.22926855 4.5695434 4291672747
2.2679446 1.541193 4.6033449 4291672747
2.2531447 0.77542317 4.585165 4291672747
2.2491562 0.59160191 4.578208 4291672747
2.2456467 0.4098199 4.574439 4291672747
2.2292852 -0.12872715 4.5437813 4291672747
2.250972 1.149479 4.5921559 4291672747
2.2472064 0.96046972 4.5878787 4291672747
2.1539521 2.0555425 4.3755007 4291672747
2.2576289 1.9504023 4.610384 4291672747
2.2543461 1.7429578 4.609777 4291672747
2.234159 1.3398554 4.5936208 4291672747
2.2195005 1.5355763 4.5978961 4291672747
2.0917153 2.055784 4.3955498 4291672747
2.1551273 0.052111704 4.5513873 4291672747
2.1511557 -0.12510152 4.5432906 4291672747
2.1532385 0.40927848 4.5652089 4291672747
2.1490834 0.23025751 4.5565014 4291672747
2.1391981 -0.30233043 4.5365863 4291672747
2.1526155 0.77217323 4.5801234 4291672747
2.1479216 0.58951372 4.5700507 4291672747
2.1620965 1.9372448 4.6036162 4291672747
2.1602769 1.7323694 4.6051698 4291672747
2.1534085 1.5286124 4.5924716 4291672747
2.1498482 1.3326037 4.5874033 4291672747
2.1481504 1.1422856 4.5843115 4291672747
2.1441407 0.95459807 4.578022 4291672747
2.1025157 -0.47769541 4.5289073 4291672747
2.0462832 2.0574069 4.4132547 4291672747
2.1042011 1.9283237 4.5965805 4291672747
2.1030979 1.724973 4.5991387 4291672747
2.0510669 -0.65326446 4.5264339 4291672747
2.0534148 0.40861842 4.55516 4291672747
2.0494566 0.23119785 4.5453629 4291672747
2.0489643 0.055104185 4.5440326 4291672747
2.0491877 -0.1205863 4.5444345 4291672747
2.0475569 -0.29713228 4.5403857 4291672747
2.043581 -0.47347459 4.5284591 4291672747
2.0526836 0.94971704 4.5705414 4291672747
2.0515833 0.76810932 4.5699606 4291672747
2.0485849 0.58748758 4.562356 4291672747
2.0504148 1.5175328 4.5825515 4291672747
2.0474904 1.3233696 4.5775199 4291672747
2.0460241 1.1346216 4.5735984 4291672747
2.0489497 1.9216048 4.5942955 4291672747
2.0465901 1.7177347 4.5930338 4291672747
1.9528505 2.0580494 4.4421582 4291672747
1.9528444 -0.11653857 4.534904 4291672747
1.9540607 0.94470614 4.5631275 4291672747
1.9504241 -0.64457798 4.522727 4291672747
1.9524187 0.76418132 4.5599041 4291672747
1.9504886 0.58533913 4.5534735 4291672747
1.9485798 0.40837291 4.5495543 4291672747
1.9454712 0.23250844 4.5401597 4291672747
1.9536448 1.7061523 4.5832415 4291672747
1.9452238 0.05790871 4.538096 4291672747
1.9503103 1.5078714 4.5756073 4291672747
1.9481481 1.315438 4.5709071 4291672747
1.9438783 -0.2911289 4.5318913 4291672747
1.9466522 1.1278824 4.565484 4291672747
1.945474 -0.46696582 4.5323229 4291672747
1.947782 1.9086537 4.5874796 4291672747
1.8994724 1.7003429 4.5798626 4291672747
1.8527732 2.060519 4.4757895 4291672747
1.8879404 1.502412 4.5725536 4291672747
1.8858088 1.902558 4.5876064 4291672747
1.8500521 0.23337407 4.5310645 4291672747
1.8504738 0.060259111 4.5295315 4291672747
1.8497626 -0.11238525 4.5248709 4291672747
1.8497505 1.3073715 4.5625048 4291672747
1.8500288 -0.28586599 4.5230079 4291672747
1.848647 1.1212393 4.5565457 4291672747
1.8477244 0.93919498 4.5536656 4291672747
1.8479042 0.76089764 4.5538011 4291672747
1.8458148 0.58326638 4.5452328 4291672747
1.8451008 0.40802121 4.5429416 4291672747
1.8458607 1.6947056 4.5764818 4291672747
1.8435234 -0.45961365 4.5222926 4291672747
1.8423926 -0.63543421 4.5165863 4291672747
1.83925 1.8953061 4.5802808 4291672747
1.8344004 1.4973332 4.5682936 4291672747
1.7672874 2.0619757 4.501729 4291672747
1.7525358 2.0550187 4.4887724 4291672747
1.7778534 1.3006825 4.5529385 4291672747
1.7669616 1.4863386 4.5474648 4291672747
1.7686882 1.1153504 4.5467792 4291672747
1.7698129 0.93558592 4.5485349 4291672747
1.7687591 0.75760955 4.5441127 4291672747
1.768631 0.58180016 4.5396791 4291672747
1.7589821 1.8761387 4.5495849 4291672747
1.765378 0.23417082 4.5249357 4291672747
1.7590508 1.678885 4.5508285 4291672747
1.7667167 0.062288575 4.5248423 4291672747
1.7585032 0.40722656 4.532877 4291672747
1.7354594 1.285228 4.504158 4291672747
1.7575788 -0.28093806 4.513865 4291672747
1.749287 -0.10857701 4.5173721 4291672747
1.7111659 1.4633353 4.4842601 4291672747
1.7041391 1.2721112 4.4617367 4291672747
1.7043194 1.0917249 4.4575911 4291672747
1.743219 -0.45271978 4.5119562 4291672747
1.7066113 0.91640782 4.4622989 4291672747
1.7429365 -0.62707627 4.5069594 4291672747
1.7081058 0.74325973 4.4647174 4291672747
1.7161653 0.57393575 4.4835873 4291672747
1.5808949 1.7091098 4.1519647 4291672747
1.6155255 1.5663426 4.2542367 4291672747
1.6801488 1.4484576 4.4421978 4291672747
1.6768363 1.2621205 4.43013 4291672747
1.6769905 1.0830851 4.4256577 4291672747
1.6729267 0.90523577 4.4115167 4291672747
1.6743664 0.73413068 4.4135847 4291672747
1.6759288 0.56434762 4.4134164 4291672747
1.6734791 0.39477715 4.4041257 4291672747
1.6866601 0.22957604 4.4380617 4291672747
1.7057626 0.062659867 4.4892845 4291672747
1.6445942 0.8971566 4.3754425 4291672747
1.6460129 0.72755438 4.3772516 4291672747
1.648839 0.55978692 4.3806372 4291672747
1.6700385 -0.10564074 4.4262638 4291672747
1.5433248 1.885535 4.135818 4291672747
1.6241766 0.38742656 4.3282228 4291672747
1.6320988 0.22436988 4.346869 4291672747
1.6325113 0.059780456 4.3430834 4291672747
1.6667708 -0.27392891 4.4347196 4291672747
1.5353477 1.697561 4.1323228 4291672747
1.5348437 1.5177822 4.1304402 4291672747
1.5328364 1.3410259 4.1214323 4291672747
1.5337843 1.1714664 4.1215148 4291672747
1.535594 1.0060525 4.1216097 4291672747
1.6699677 -0.44490546 4.4599986 4291672747
1.6622826 -0.61379957 4.4319987 4291672747
1.6222792 -0.10388444 4.3537073 4291672747
1.5272528 0.8419829 4.1165819 4291672747
1.5278009 0.68198258 4.1154656 4291672747
1.5285573 0.52346796 4.1124911 4291672747
1.6229174 -0.2698046 4.3735976 4291672747
1.626935 -0.43687078 4.3777499 4291672747
1.6119531 -0.5997259 4.3274226 4291672747
1.52198 0.36647061 4.112359 4291672747
1.5209427 0.21005675 4.103919 4291672747
1.5238202 0.054894909 4.107398 4291672747
1.5140504 -0.099780664 4.094624 4291672747
1.5295537 -0.41442695 4.1286745 4291672747
1.5846692 -0.59411025 4.2904863 4291672747
1.5076811 -0.25481266 4.0918741 4291672747
1.5028981 -0.41039354 4.0912976 4291672747
1.504627 -0.56840163 4.0910339 4291672747
1.483454 0.2102927 4.1013212 4291672747
1.4730362 1.0017788 4.1148677 4291672747
1.462216 0.36571878 4.1049948 4291672747
1.4597888 0.52184075 4.1058779 4291672747
1.4476899 1.8726866 4.1279826 4291672747
1.4483248 1.687219 4.1252503 4291672747
1.4478592 1.5082065 4.1218805 4291672747
1.4474453 1.3338243 4.1160741 4291672747
1.4479654 1.1646214 4.1133265 4291672747
1.4495822 0.83764517 4.1074529 4291672747
1.4509966 0.67906344 4.1079154 4291672747
1.4540026 0.055915974 4.0937304 4291672747
1.4548901 -0.097932637 4.0901613 4291672747
1.4499435 -0.25237322 4.090796 4291672747
1.4413 0.21038744 4.09693 4291672747
1.4444202 -0.40703338 4.0866861 4291672747
1.4454437 -0.56385499 4.0832372 4291672747
1.4297938 0.365152 4.0996752 4291672747
1.4190508 0.99820137 4.1095948 4291672747
1.4064006 0.52034736 4.0994048 4291672747
1.3885932 0.83453101 4.1018262 4291672747
1.3929945 0.52070117 4.1033878 4291672747
1.3788507 1.5022018 4.1194348 4291672747
1.3581969 0.99437904 4.1043215 4291672747
1.3453315 1.858797 4.1183772 4291672747
1.3468965 1.6753646 4.1167793 4291672747
1.3480033 1.3256814 4.1101027 4291672747
1.3485335 1.1572343 4.105485 4291672747
1.3524053 0.67596591 4.10254 4291672747
1.3435555 0.83239639 4.0984106 4291672747
1.3488233 0.36453262 4.0953693 4291672747
1.3499507 0.21067938 4.0904894 4291672747
1.3324156 1.4972413 4.1147962 4291672747
1.3511518 0.057531748 4.0859551 4291672747
1.3530877 -0.095039785 4.0839906 4291672747
1.3557767 -0.24852696 4.0845699 4291672747
1.3408918 0.5194881 4.0991359 4291672747
1.3510909 -0.40210924 4.0813265 4291672747
1.3306839 0.67474973 4.0981016 4291672747
1.3455646 -0.5573414 4.077457 4291672747
1.3119649 0.99075556 4.097085 4291672747
1.2946128 1.4940605 4.1133475 4291672747
1.2946502 1.8695667 4.1549301 4291672747
1.2919073 0.83036804 4.0964642 4291672747
1.2897323 1.685742 4.1560822 4291672747
1.2860733 0.99259073 4.1094718 4291672747
1.2850339 1.5097125 4.1607862 4291672747
1.2836531 1.3331921 4.1474228 4291672747
1.2817836 1.1609993 4.1320882 4291672747
1.3011479 -0.39957985 4.0777402 4291672747
1.28213 0.51827598 4.0955744 4291672747
1.288052 1.89458 4.215477 4291672747
1.284324 0.36438978 4.0960293 4291672747
1.2769256 0.21076332 4.0845327 4291672747
1.2721887 0.67758703 4.12327 4291672747
1.2848799 1.9138967 4.2617826 4291672747
1.2743087 0.058866791 4.0903554 4291672747
1.2746398 -0.093039259 4.0809326 4291672747
1.2704591 1.0039213 4.1605954 4291672747
1.2680742 0.83895373 4.1434054 4291672747
1.2799861 1.7257357 4.2625275 4291672747
1.2775459 1.5387259 4.246562 4291672747
1.2706512 -0.24542885 4.0812616 4291672747
1.258876 0.52420324 4.1434889 4291672747
1.2562184 0.3670454 4.1248345 4291672747
1.2712188 1.370343 4.2709665 4291672747
1.2669153 1.1906285 4.2445993 4291672747
1.2603053 -0.39804631 4.0806918 4291672747
1.2629001 -0.55304354 4.0791464 4291672747
1.2769483 1.9514648 4.3521094 4291672747
1.265216 1.0256706 4.2543907 4291672747
1.2726948 1.7604843 4.3546381 4291672747
1.2496859 0.21452571 4.1427526 4291672747
1.2699118 1.5690525 4.3360834 4291672747
1.2593927 0.86007994 4.2509818 4291672747
1.2570276 0.69515359 4.2322683 4291672747
1.2448895 0.060688335 4.1395874 4291672747
1.2638855 1.3886151 4.3318725 4291672747
1.2417475 -0.092586853 4.1428456 4291672747
1.2608535 1.2160002 4.339612 4291672747
1.2504884 0.53812933 4.2514935 4291672747
1.2692419 1.991141 4.4472628 4291672747
1.2672887 1.7878149 4.4269438 4291672747
1.2631397 1.5912986 4.4019046 4291672747
1.2614516 1.4043624 4.3836088 4291672747
1.2352419 -0.24627513 4.1325083 4291672747
1.2517474 0.70595795 4.2987509 4291672747
1.2457939 0.37922502 4.2522883 4291672747
1.2564691 1.0521617 4.3689442 4291672747
1.254281 0.87948704 4.3493118 4291672747
1.2654717 2.0120342 4.4972553 4291672747
1.263875 1.8070035 4.4775915 4291672747
1.2406553 0.22106588 4.2474718 4291672747
1.2600701 1.6087711 4.4531412 4291672747
1.2314301 -0.40237331 4.1564379 4291672747
1.2297063 -0.55755663 4.1369638 4291672747
1.237721 0.063951485 4.2515202 4291672747
1.2571442 1.427984 4.4612751 4291672747
1.2554555 1.2434797 4.4422188 4291672747
1.2472141 0.71773368 4.3710332 4291672747
1.2443149 0.55020106 4.3450508 4291672747
1.2342762 -0.093013339 4.2528305 4291672747
1.2496815 0.89404023 4.4231315 4291672747
1.2403387 0.38837731 4.3480806 4291672747
1.2297746 -0.25072113 4.2500992 4291672747
1.2510223 1.0762055 4.4724112 4291672747
1.2376597 0.22762287 4.3531685 4291672747
1.226967 -0.40906626 4.2501788 4291672747
1.2462144 0.90374321 4.4723778 4291672747
1.2250111 -0.56717306 4.2284336 4291672747
1.2332635 2.0241828 4.5321021 4291672747
1.2349672 1.8229339 4.5245552 4291672747
1.236505 1.6306027 4.5207424 4291672747
1.2337931 0.066851847 4.3528037 4291672747
1.2426765 0.73516673 4.4777174 4291672747
1.2393551 0.56355757 4.4483356 4291672747
1.23797 0.39627475 4.4306402 4291672747
1.2302305 1.4427261 4.514051 4291672747
1.2299891 -0.093480587 4.3528337 4291672747
1.2252477 1.2611666 4.5127716 4291672747
1.2240733 -0.25423977 4.3435059 4291672747
1.2212795 1.0843829 4.5120654 4291672747
1.2237477 -0.4165549 4.3537092 4291672747
1.2227348 0.90950102 4.5047693 4291672747
1.2249107 -0.57955265 4.3431587 4291672747
1.2183098 0.73925793 4.5057621 4291672747
1.2217643 0.57048929 4.5034685 4291672747
1.2222265 0.23526597 4.475996 4291672747
1.2235544 0.070115454 4.465312 4291672747
1.2157301 0.40254414 4.4973116 4291672747
1.2209607 -0.093981557 4.4695482 4291672747
1.2201947 -0.25836623 4.4499698 4291672747
1.2144192 -0.42467371 4.4680796 4291672747
1.2150899 -0.59111673 4.4539084 4291672747
1.1758509 0.90812224 4.5047278 4291672747
1.1494032 2.012255 4.5196319 4291672747
1.1529738 1.8146442 4.5179968 4291672747
1.155656 1.6242777 4.5169129 4291672747
1.1603607 1.0800304 4.5031533 4291672747
1.1495583 1.4366823 4.5083699 4291672747
1.1525159 1.2558736 4.5053535 4291672747
1.1633083 0.73760206 4.5028114 4291672747
1.1511467 0.56881797 4.4979625 4291672747
1.1517529 0.56922692 4.5010142 4291672747
1.1457452 0.40169537 4.4926705 4291672747
1.149002 0.2361536 4.4879022 4291672747
1.1528622 0.071394719 4.4859657 4291672747
1.1239014 1.0772815 4.4971104 4291672747
1.1276921 0.905361 4.497839 4291672747
1.1487124 -0.092782073 4.4817648 4291672747
1.1518394 -0.25767446 4.4764342 4291672747
1.1034453 1.2512088 4.4960966 4291672747
1.1497749 -0.42320904 4.4774661 4291672747
1.1460279 -0.59042871 4.4738717 4291672747
1.1081504 0.73560113 4.4977746 4291672747
1.0936776 1.0772094 4.5014572 4291672747
1.0674787 2.002912 4.5121527 4291672747
1.077029 1.4306824 4.5010204 4291672747
1.0860338 0.73588514 4.5023632 4291672747
1.0550948 1.8041435 4.507669 4291672747
1.0583457 1.6150609 4.5068135 4291672747
1.0487409 1.2486466 4.4952559 4291672747
1.0571865 0.90238398 4.4929566 4291672747
1.0460405 1.0742223 4.4958849 4291672747
1.0188599 1.9978468 4.5084586 4291672747
1.0290225 1.4267151 4.4958315 4291672747
1.0500001 0.56634474 4.4897742 4291672747
1.0536133 0.40064606 4.4882011 4291672747
1.0385516 0.73365909 4.4949059 4291672747
1.049387 0.23576568 4.4808879 4291672747
1.053969 0.07199835 4.4800611 4291672747
0.99880183 1.7988709 4.5032673 4291672747
1.0012866 1.6083322 4.4966559 4291672747
1.0502241 -0.09126047 4.4748287 4291672747
1.0461453 -0.25494674 4.4672937 4291672747
1.0524737 -0.41981769 4.4707465 4291672747
0.97776705 1.9918472 4.5010719 4291672747
1.0017828 0.89913923 4.4844184 4291672747
1.0488266 -0.5858134 4.4647503 4291672747
0.98572332 0.40015125 4.4884696 4291672747
0.94203377 1.7917835 4.4937901 4291672747
0.94637752 1.6050272 4.495594 4291672747
0.95013165 1.4211427 4.4898896 4291672747
0.95386738 1.2419294 4.4848189 4291672747
0.92981815 1.9874434 4.4982829 4291672747
0.9523052 1.0693551 4.4887452 4291672747
0.94843906 0.89776182 4.4847436 4291672747
0.9459309 0.73063523 4.4881787 4291672747
0.95012766 0.56391263 4.481966 4291672747
0.94932961 0.39914277 4.480804 4291672747
0.95093518 0.2352633 4.474431 4291672747
0.94816291 0.072336979 4.4710207 4291672747
0.9525606 -0.090021513 4.46631 4291672747
0.94883114 -0.25269735 4.4570289 4291672747
0.88347375 1.6006339 4.4921694 4291672747
0.94840181 -0.41642609 4.461019 4291672747
0.95269626 -0.58162498 4.4549999 4291672747
0.84958345 1.9782028 4.4883394 4291672747
0.8468774 1.7831974 4.485415 4291672747
0.84803051 1.4134207 4.4793296 4291672747
0.85292625 1.2361802 4.477633 4291672747
0.83589816 1.595947 4.4852533 4291672747
0.85154128 1.0640842 4.4798493 4291672747
0.84880936 0.89402205 4.4786906 4291672747
0.84640598 0.7273261 4.4798884 4291672747
0.85124826 0.56151873 4.4739609 4291672747
0.84840572 0.39750311 4.471951 4291672747
0.85292065 0.23445092 4.4643426 4291672747
0.85095757 0.072477803 4.4624352 4291672747
0.84882253 -0.088967539 4.4588552 4291672747
0.8532362 -0.25092903 4.4502921 4291672747
0.8456369 -0.41352886 4.4517441 4291672747
0.85086888 -0.57798415 4.4475369 4291672747
0.74667215 1.9680066 4.4783158 4291672747
0.75277609 1.7755812 4.4782672 4291672747
0.75016117 1.589606 4.4782324 4291672747
0.74731225 1.4067773 4.4709988 4291672747
0.75266933 1.2302221 4.4686599 4291672747
0.75197345 1.0592997 4.4720926 4291672747
0.74984598 0.89011526 4.4712625 4291672747
0.74785429 0.724042 4.4715147 4291672747
0.75346839 0.55920154 4.4668312 4291672747
0.75090438 0.39574075 4.4628 4291672747
0.7488451 0.23351653 4.4559331 4291672747
0.75485754 0.072368316 4.4545922 4291672747
0.74603432 -0.088293001 4.4507661 4291672747
0.75114536 -0.24943748 4.4422693 4291672747
0.67807406 1.40231 4.4650745 4291672747
0.65278918 1.9598917 4.4708257 4291672747
0.74433601 -0.41140437 4.4452348 4291672747
0.74997717 -0.57490301 4.4394684 4291672747
0.65146452 1.7669394 4.4683161 4291672747
0.64936078 1.5816914 4.4677491 4291672747
0.65366423 1.2252375 4.4623003 4291672747
0.64568871 1.0542518 4.4634166 4291672747
0.65145683 0.88575935 4.4611773 4291672747
0.62427843 1.3982034 4.4580727 4291672747
0.65010577 0.72065836 4.4624553 4291672747
0.64909899 0.55665761 4.4592848 4291672747
0.6547122 0.39415142 4.4568467 4291672747
0.64562047 0.23227505 4.4463344 4291672747
0.65223801 0.071936749 4.4456034 4291672747
0.64376968 -0.087978639 4.4386778 4291672747
0.64989674 -0.24837013 4.4330969 4291672747
0.5517453 1.9510345 4.4612956 4291672747
0.55119365 1.75942 4.4600444 4291672747
0.64373314 -0.4097023 4.4370289 4291672747
0.64976364 -0.57219714 4.4291434 4291672747
0.54939353 1.5737365 4.4560361 4291672747
0.5482493 1.3934909 4.4513178 4291672747
0.54766637 1.2195237 4.4533534 4291672747
0.5477106 1.0494093 4.4541397 4291672747
0.5466153 0.88142163 4.4517274 4291672747
0.55325609 0.71735191 4.4539566 4291672747
0.54565829 0.55408227 4.45225 4291672747
0.55178899 0.39215359 4.4492402 4291672747
0.5437516 0.2310517 4.4412618 4291672747
0.55063778 0.071199805 4.4377494 4291672747
0.55009103 -0.08808627 4.4314671 4291672747
0.45139322 1.9421355 4.450459 4291672747
0.54986852 -0.24793899 4.4273596 4291672747
0.45160285 1.7519608 4.4507413 4291672747
0.45049855 1.567156 4.4471698 4291672747
0.5439797 -0.40855694 4.4288588 4291672747
0.55092031 -0.5706467 4.4233699 4291672747
0.45005012 1.3876992 4.4427505 4291672747
0.44987628 1.2139429 4.4432163 4291672747
0.45056564 1.0449388 4.445765 4291672747
0.4500266 0.87750572 4.4431038 4291672747
0.44984722 0.71401626 4.4460883 4291672747
0.45002058 0.55120248 4.4424524 4291672747
0.4494943 0.38984534 4.4399347 4291672747
0.44946828 0.22949649 4.4329033 4291672747
0.44988516 0.070192449 4.4310737 4291672747
0.35182333 1.9336598 4.4392695 4291672747
0.44988796 -0.088568263 4.4228601 4291672747
0.35264826 1.7445694 4.4404354 4291672747
0.45014772 -0.24773324 4.4165711 4291672747
0.35240909 1.5618232 4.4407258 4291672747
0.44489816 -0.40780646 4.4190545 4291672747
0.45254365 -0.56937987 4.4148517 4291672747
0.34512669 1.3824461 4.4355917 4291672747
0.3528831 1.2090943 4.4348907 4291672747
0.34661502 1.0401155 4.4360003 4291672747
0.35415882 0.87394184 4.4358211 4291672747
0.34707454 0.71049976 4.4370809 4291672747
0.35514471 0.5484426 4.4340525 4291672747
0.34800714 0.38749361 4.4317956 4291672747
0.35586527 0.22778855 4.4254241 4291672747
0.2529639 1.9267473 4.4304891 4291672747
0.34963584 0.068813242 4.4221911 4291672747
0.25434223 1.7377284 4.430387 4291672747
0.34331936 -0.089515202 4.4139919 4291672747
0.35141435 -0.24818434 4.4098625 4291672747
0.24723046 1.5557178 4.4316745 4291672747
0.24817663 1.3776938 4.428503 4291672747
0.34661737 -0.40776196 4.4110556 4291672747
0.35488623 -0.56882656 4.4070034 4291672747
0.24902876 1.2039303 4.4254184 4291672747
0.25068247 1.0357337 4.4269381 4291672747
0.25148949 0.87017924 4.4282575 4291672747
0.24489962 0.70682442 4.4275341 4291672747
0.25362268 0.54548723 4.4262457 4291672747
0.24707003 0.38486022 4.4231544 4291672747
0.2555809 0.22555296 4.4157157 4291672747
0.15465978 1.9205543 4.4223204 4291672747
0.25003329 0.067078814 4.4145474 4291672747
0.26442274 -0.24907418 4.4050417 4291672747
0.14910738 1.7311527 4.4205437 4291672747
0.17521471 1.2008672 4.420579 4291672747
0.2491941 -0.090817094 4.407928 4291672747
0.27862257 -0.56907976 4.4028568 4291672747
0.15008636 1.5508256 4.424624 4291672747
0.15165181 1.3723229 4.4187007 4291672747
0.24896955 -0.40849915 4.4054599 4291672747
0.15527272 1.0312029 4.4168258 4291672747
0.21619986 -0.091272168 4.3994298 4291672747
0.22510612 -0.24931227 4.3968697 4291672747
0.13397619 1.1985945 4.4155865 4291672747
0.14928421 0.86600775 4.4184713 4291672747
0.1505419 0.70346451 4.4191241 4291672747
0.22323066 -0.56909239 4.3962936 4291672747
0.1525778 0.54214376 4.4162345 4291672747
0.14668144 0.3819631 4.4134564 4291672747
0.15585937 0.22315146 4.4072485 4291672747
0.049214337 1.9136463 4.4116235 4291672747
0.1863759 -0.40920115 4.4015522 4291672747
0.051809043 1.7261747 4.4131274 4291672747
0.15090719 0.065029681 4.4064498 4291672747
0.053247716 1.5465492 4.4182639 4291672747
0.15307659 -0.092481166 4.4001498 4291672747
0.15537512 -0.2503708 4.3916998 4291672747
0.14325178 -0.092647403 4.3961406 4291672747
0.048205044 1.3665895 4.4072723 4291672747
0.050267011 1.1945904 4.4073067 4291672747
0.078186639 0.70114309 4.4142532 4291672747
0.052973352 1.0270754 4.4084482 4291672747
0.099066116 0.22157681 4.4005485 4291672747
0.13780117 -0.40967125 4.3954148 4291672747
0.14740257 -0.56976432 4.3900604 4291672747
0.04754173 0.86203659 4.4092703 4291672747
0.066363424 0.53894246 4.4055185 4291672747
0.094426341 0.063763373 4.4030657 4291672747
0.064513274 0.3795343 4.406137 4291672747
-0.022741739 1.7212682 4.4039087 4291672747
-0.040883902 1.9090664 4.4044623 4291672747
0.027776679 0.69841027 4.4040794 4291672747
-0.028327994 1.5412664 4.4073501 4291672747
-0.0083702737 1.1921493 4.4025006 4291672747
0.033012196 0.5372777 4.3980851 4291672747
-0.030458378 1.3636402 4.4023852 4291672747
0.042472698 0.21991566 4.3935375 4291672747
0.045181815 0.062466044 4.3950572 4291672747
0.023079487 0.37776396 4.3968358 4291672747
0.048108969 -0.094646536 4.3874378 4291672747
-0.085698247 1.9054006 4.3972225 4291672747
-0.074829854 1.7182702 4.3980432 4291672747
0.051079374 -0.25234485 4.3844891 4291672747
-0.034461044 1.0236756 4.4011154 4291672747
-0.0053208484 0.53689098 4.4012642 4291672747
0.054772109 -0.41113803 4.3901873 4291672747
-0.035804175 0.85897994 4.4021316 4291672747
-0.080029212 1.5376549 4.3991241 4291672747
-0.059400626 1.1888794 4.3936391 4291672747
-0.073292658 1.361176 4.3965402 4291672747
-0.033490773 0.69671643 4.4011946 4291672747
0.05116215 -0.57146806 4.3857827 4291672747
-0.06843821 1.0225085 4.3986611 4291672747
-0.058680847 0.69584578 4.3989577 4291672747
-0.055206817 0.53468698 4.3923326 4291672747
-0.14571349 1.9037777 4.394587 4291672747
-0.077940963 0.85724157 4.397367 4291672747
-0.05269637 0.37543795 4.3898106 4291672747
-0.14909123 1.7143209 4.3898239 4291672747
-0.13956986 1.5373714 4.4003515 4291672747
-0.056431353 0.21720789 4.386147 4291672747
-0.046012174 0.060015708 4.3838134 4291672747
-0.15647449 1.5346712 4.3930802 4291672747
-0.15028417 1.3572856 4.3873501 4291672747
-0.04957553 -0.097011141 4.3800364 4291672747
-0.14703472 1.1857079 4.3868814 4291672747
-0.052952435 -0.25473097 4.3770518 4291672747
-0.15071444 1.0192235 4.390573 4291672747
-0.048690643 -0.41318342 4.380446 4291672747
-0.2205236 1.9005464 4.3879991 4291672747
-0.15495868 0.85432708 4.3898301 4291672747
-0.051678233 -0.57359546 4.3784652 4291672747
-0.1448746 0.69284856 4.3912101 4291672747
-0.14815341 0.53201312 4.3872418 4291672747
-0.15208885 0.37243924 4.3827057 4291672747
-0.25313872 1.7105675 4.3818493 4291672747
-0.12612222 -0.099110305 4.3729587 4291672747
-0.27283078 1.8983688 4.383122 4291672747
-0.15496905 0.21407859 4.3754759 4291672747
-0.24983381 1.5300773 4.3822074 4291672747
-0.14423726 0.057226878 4.3778586 4291672747
-0.24563076 1.3537046 4.3791404 4291672747
-0.24909727 1.1818304 4.3775821 4291672747
-0.14968787 -0.25730371 4.367404 4291672747
-0.252303 1.0155557 4.3816571 4291672747
-0.17478406 -0.10057513 4.3685989 4291672747
-0.15175779 -0.41568193 4.3690696 4291672747
-0.25599492 0.85082811 4.3812976 4291672747
-0.2452836 0.68926018 4.3816953 4291672747
-0.15418538 -0.57606798 4.3683867 4291672747
-0.24800755 0.52864981 4.3787074 4291672747
-0.35476065 1.8942072 4.3730597 4291672747
-0.25131613 0.36916688 4.3745847 4291672747
-0.34962189 1.7069598 4.3730531 4291672747
-0.34593174 1.5271841 4.3753176 4291672747
-0.25368062 0.21095778 4.3694997 4291672747
-0.2490676 0.053757243 4.3669643 4291672747
-0.34820062 1.349847 4.3694468 4291672747
-0.25121719 -0.10313476 4.3619857 4291672747
-0.3510817 1.178136 4.3682837 4291672747
-0.24631026 -0.2604095 4.3585057 4291672747
-0.35368007 1.0115941 4.3711095 4291672747
-0.2479585 -0.41884327 4.361197 4291672747
-0.34935021 0.84676868 4.3692894 4291672747
-0.34581304 0.6858834 4.3739462 4291672747
-0.24960974 -0.57895994 4.3581319 4291672747
-0.34776419 0.52507269 4.3697128 4291672747
-0.45160306 1.890059 4.3620696 4291672747
-0.4457202 1.7024089 4.3608794 4291672747
-0.35061505 0.36572847 4.3671479 4291672747
-0.44897562 1.5228732 4.3635569 4291672747
-0.35198802 0.2072897 4.3591146 4291672747
-0.45093092 1.3465711 4.3607993 4291672747
-0.35417825 0.04996264 4.3598027 4291672747
-0.45288804 1.1741761 4.3573351 4291672747
-0.35541007 -0.10700975 4.3527861 4291672747
-0.34990853 -0.26434273 4.3500738 4291672747
-0.45518249 1.008009 4.3616877 4291672747
-0.44336066 0.84394711 4.3633394 4291672747
-0.52035791 1.7012357 4.356811 4291672747
-0.35094374 -0.42279056 4.3520126 4291672747
-0.44594344 0.68184298 4.362339 4291672747
-0.34524217 -0.5828262 4.3508883 4291672747
-0.54891795 1.8876544 4.35394 4291672747
-0.4474299 0.52125865 4.3596816 4291672747
-0.44951037 0.36175951 4.3558626 4291672747
-0.5523932 1.5196648 4.3538399 4291672747
-0.57195091 1.6986241 4.3489633 4291672747
-0.45052475 0.20347223 4.3505607 4291672747
-0.55340821 1.3427373 4.3493834 4291672747
-0.45216313 0.046033699 4.3511376 4291672747
-0.55535066 1.1714609 4.3501849 4291672747
-0.45282292 -0.11105946 4.3451619 4291672747
-0.54959792 1.0048801 4.3533134 4291672747
-0.54420042 0.84006649 4.352469 4291672747
-0.4533672 -0.26872537 4.339992 4291672747
-0.54692721 0.6786837 4.35638 4291672747
-0.45392603 -0.42731711 4.3424616 4291672747
-0.65416425 1.8860842 4.3462729 4291672747
-0.51348269 0.20071569 4.3419151 4291672747
-0.44763696 -0.5875091 4.3418965 4291672747
-0.54712492 0.51727641 4.3491697 4291672747
-0.65396839 1.696885 4.3420305 4291672747
-0.54889798 0.35787991 4.347497 4291672747
-0.64838105 1.5165772 4.3435025 4291672747
-0.64888215 1.339777 4.3397985 4291672747
-0.56293666 0.19868869 4.3382506 4291672747
-0.54981726 0.041744571 4.3392067 4291672747
-0.64987737 1.1677318 4.3382683 4291672747
-0.63671845 1.0017961 4.3441501 4291672747
-0.54995418 -0.11540826 4.3342814 4291672747
-0.64538389 0.83652782 4.342711 4291672747
-0.55024242 -0.27329656 4.3318529 4291672747
-0.64724761 0.67460138 4.3442984 4291672747
-0.75177747 1.8840228 4.3362956 4291672747
-0.55062217 -0.43226615 4.336484 4291672747
-0.68707645 0.99940968 4.3358688 4291672747
-0.64730418 0.51351517 4.3403835 4291672747
-0.75139529 1.6956468 4.3346829 4291672747
-0.55049199 -0.59299994 4.3347836 4291672747
-0.74521405 1.5149848 4.3360801 4291672747
-0.64847243 0.3538892 4.3386302 4291672747
-0.74428368 1.3366376 4.3283706 4291672747
-0.64762163 0.19505344 4.3303881 4291672747
-0.74533957 1.1653349 4.3301415 4291672747
-0.64776963 0.037261575 4.3285308 4291672747
-0.74556738 0.99781114 4.331038 4291672747
-0.64772505 -0.12011492 4.3263545 4291672747
-0.74679643 0.83300477 4.3323712 4291672747
-0.64680469 -0.27811155 4.3204732 4291672747
-0.84952575 1.8820885 4.3252945 4291672747
-0.74832124 0.67098892 4.3350072 4291672747
-0.64739913 -0.43759674 4.3289437 4291672747
-0.63279849 -0.59772396 4.3278246 4291672747
-0.8490662 1.6944729 4.3263302 4291672747
-0.74729073 0.50932521 4.3288398 4291672747
-0.84970397 1.5131813 4.3267355 4291672747
-0.74827915 0.34967038 4.3292556 4291672747
-0.84798831 1.3344724 4.3190913 4291672747
-0.7464667 0.1904774 4.3198686 4291672747
-0.84872502 1.1630853 4.3219504 4291672747
-0.68051684 -0.60043019 4.3215609 4291672747
-0.74688512 0.032499321 4.3224382 4291672747
-0.8475526 0.99425745 4.3190632 4291672747
-0.74523598 -0.12521003 4.3151512 4291672747
-0.84844643 0.82938659 4.3214583 4291672747
-0.94774294 1.8807894 4.3146653 4291672747
-0.74404609 -0.28356472 4.3114586 4291672747
-0.84934294 0.66695577 4.3234949 4291672747
-0.94710594 1.6934729 4.3174148 4291672747
-0.75057757 -0.44356847 4.316267 4291672747
-0.84832764 0.50540668 4.3206506 4291672747
-0.95457315 1.5114887 4.3166728 4291672747
-0.74945939 -0.60506129 4.3159933 4291672747
-0.84803391 0.34502673 4.3176823 4291672747
-0.95310402 1.3336772 4.3133812 4291672747
-0.84605396 0.18567716 4.3110776 4291672747
-0.95201403 1.1602336 4.3109469 4291672747
-0.84581548 0.027271926 4.3130298 4291672747
-0.95071846 0.99151069 4.3102756 4291672747
-1.0420471 1.8810495 4.3070745 4291672747
-0.84380215 -0.13085972 4.3073869 4291672747
-0.95056963 0.82571465 4.3104959 4291672747
-0.83623904 -0.28928715 4.303575 4291672747
-1.0379962 1.6926757 4.3087568 4291672747
-0.95052165 0.66260493 4.3108678 4291672747
-0.94220978 0.50132674 4.3111615 4291672747
